56.1918 -12.9672 137.851
54.7873 -1.76934 197.747
186.951 80.2202 138.087
92.4303 29.2752 192.926
85.9875 52.6425 116.366
122.236 25.1501 74.6741
117.441 24.2619 69.2684
77.1748 59.2593 144.924
101.114 30.3762 125.108
124.984 60.538 167.61
77.0418 65.663 134.925
177.54 71.1897 134.229
63.2028 3.19039 203.712
82.5135 35.9182 187.312
78.286 64.4001 130.7
158.561 31.3565 116.171
161.864 51.5347 178.556
40.229 -11.1166 179.453
119.447 9.6975 26.4098
78.9466 25.9902 189.702
150.38 102.196 189.852
172.216 70.4925 177.358
78.7745 7.92846 107.728
63.6033 -9.61074 129.801
145.207 48.2977 168.703
129.8 8.32729 39.0964
72.7253 27.2273 190.577
23.0622 15.2563 162.968
125.229 94.5461 166.985
51.6646 11.4359 209.447
178.885 45.4308 153.918
129.311 19.0657 69.5832
143.976 53.4846 180.043
175.811 87.0439 149.806
180.431 27.9004 130.269
99.165 42.9369 151.78
112.772 32.1309 108.374
47.2629 -9.95914 168.399
68.8349 9.24377 192.913
175.061 50.92 172.686
183.463 90.0729 133.642
75.1621 -1.14922 113.163
94.36 6.41737 73.2486
138.151 35.529 116.014
98.8838 35.2556 188.07
181.999 85.5037 138.836
170.175 51.7324 173.372
80.5997 52.6532 110.044
121.86 43.2606 152.686
38.981 29.488 185.172
86.8524 19.904 216.803
111.847 29.9805 101.409
124.988 92.3348 164.972
93.5459 23.0183 193.705
98.9405 68.8303 123.861
72.7253 27.2273 190.577
94.215 13.9744 76.3902
51.3065 58.9836 137.391
146.506 94.5276 190.293
100.741 24.3954 167.488
46.7952 20.025 198.11
56.3016 15.9572 210.881
59.8133 41.9148 151.149
156.19 50.1845 173.266
137.923 37.2418 121.114
164.768 65.5187 204.576
29.7264 47.3256 117.009
180.502 83.17 144.062
104.789 76.8631 131.228
45.4136 -6.6439 184.849
121.662 12.2734 36.2312
164.34 78.1063 199.741
175.264 61.6872 139.475
115.602 63.2083 158.844
62.0853 -8.32351 132.045
42.8422 33.2321 177.618
143.813 45.6488 164.825
84.9714 52.1927 115.492
22.1811 -2.97654 92.1948
79.7502 48.6415 139.39
107.715 19.9588 47.3394
53.813 15.9443 209.205
67.4976 -8.10229 122.214
156.594 23.4469 104.23
107.335 57.0831 140.729
80.0249 35.9053 185.636
112.267 80.8258 143.368
167.798 43.8593 158.46
77.5354 48.6042 139.696
129.36 91.8743 170.419
131.429 76.602 177.013
166.509 45.9725 165.731
159.969 81.1056 204.421
30.1501 33.4238 151.106
136.037 92.2891 179.597
152.808 35.6308 124.085
94.215 13.9744 76.3902
73.1007 75.178 91.1655
149.395 33.4675 115.444
121.675 16.1974 43.3447
51.0325 -9.5919 146.682
82.7726 11.6603 101.164
68.1209 58.5875 151.215
82.9818 11.0114 177.855
115.397 32.1316 111.04
124.255 19.5871 59.183
35.9161 20.3617 194.57
111.469 27.7814 98.4052
83.3297 62.4934 144.113
136.224 77.4902 182.418
185.214 75.6752 141.3
168.952 77.3183 197.075
72.0093 -9.79956 89.2629
125.088 62.7614 168.633
107.175 12.4626 39.2452
48.9354 9.21173 205.758
87.9071 5.51438 98.3592
37.6289 19.5973 187.257
178.307 94.7624 113.211
155.793 84.6276 204.032
74.6275 51.0954 118.927
93.0095 100.687 110.938
138.504 111.173 144.153
46.0112 3.92603 197.011
82.7652 49.6879 131.919
127.214 35.3307 118.533
150.285 94.966 194.824
168.208 36.2067 131.05
72.7777 72.1998 111.365
110.977 80.4002 140.512
189.037 67.6473 112.405
134.884 91.8514 177.732
79.3676 7.0295 108.644
118.887 57.8389 162.362
138.368 45.1245 164.562
139.326 72.9833 187.992
63.896 23.5286 221.029
124.478 76.2115 165.854
82.7602 10.275 104.177
92.7062 17.8715 115.011
125.682 17.4618 52.9023
32.4403 8.73315 190.869
72.9493 19.1231 194.485
130.536 39.1946 133.265
80.579 56.2741 107.063
69.7221 -0.377803 178.538
156.804 73.6086 193.661
117.082 55.2265 155.513
87.9075 76.6529 97.2139
126.207 88.3013 166.773
83.0855 13.2348 178.877
79.1487 54.5466 132.479
107.489 90.253 136.068
159.134 39.1558 134.36
100.52 28.7364 114.064
83.4986 93.2854 86.9222
33.1066 49.1858 115.556
54.3178 56.1772 149.055
58.6771 54.3313 157.516
186.172 73.0514 138.107
170.881 73.4559 187.675
48.529 18.1784 203.905
66.612 16.7514 197.35
42.9213 12.357 198.551
154 57.9952 187.799
41.3536 5.5643 202.723
129.608 63.674 172.058
67.1567 77.7049 64.7594
132.522 33.3285 107.679
171.751 73.8468 161.31
185.732 61.3871 140.043
166.536 19.5745 103.818
174.123 44.8456 158.607
37.6249 13.2058 196.265
137.851 25.1667 89.679
125.552 102.602 167.039
146.672 57.9444 183.763
175.293 58.1375 168.705
152.776 42.9438 144.371
52.3605 48.3388 163.363
133.366 67.7333 173.607
120.496 57.3898 164.154
100.202 103.288 124.11
81.3027 14.6176 205.39
130.132 11.3767 45.1454
138.424 32.966 107.868
51.1577 39.8212 163.425
53.8401 -12.9923 137.166
119.552 19.537 57.8132
91.3725 36.0671 186.089
102.346 35.344 154.276
68.6934 63.8482 159.277
100.785 28.6409 89.7965
89.618 41.5346 177.312
65.74 44.323 145.311
105.042 80.4596 130.228
159.637 100.923 194.614
143.229 69.4855 186.4
94.1638 24.8899 188.595
178.407 67.7277 126.999
66.9273 9.4853 205.294
89.1481 51.2093 126.008
132.66 40.9324 139.05
53.7172 26.5039 190.166
129.161 10.0765 41.2253
72.8454 37.2276 179.578
76.1901 -4.39145 90.7707
67.769 23.5806 190.207
105.519 75.9519 133.135
84.4629 30.9736 191.02
82.9176 4.10327 98.0219
76.373 -0.176524 108.97
90.0809 63.604 104.83
56.4207 38.6693 155.616
113.708 25.5119 71.8188
55.978 7.90164 210.826
169.585 94.6013 115.424
68.6934 63.8482 159.277
101.229 31.4462 112.99
151.184 66.4018 191.32
157.416 20.8352 100.047
143.051 79.2782 189.574
170.312 77.1255 180.732
149.266 23.3961 100.195
54.3419 -14.7294 134.046
87.2145 13.1201 97.5388
26.4592 7.10412 173.503
159.995 19.1476 95.631
138.203 14.4404 58.2017
160.674 97.7517 198.47
73.0604 6.18552 160.994
151.5 104.869 191.749
10.6872 14.5918 40.4914
122.191 31.0778 97.9735
116.106 27.2253 79.5851
75.7811 56.6104 141.046
78.8534 73.4424 93.3779
181.033 90.595 125.908
61.883 49.5091 153.985
119.656 26.8378 79.0897
87.8034 3.29096 97.3367
64.1082 -12.5724 87.292
152.553 63.7415 191.098
96.185 25.7368 69.1954
126.639 59.2386 166.356
121.52 50.2948 160.896
136.071 90.0535 179.565
177.172 46.1952 161.231
83.1376 78.5352 85.7813
130.836 100.368 172.339
103.331 26.6501 75.286
107.43 36.3687 119.26
108.949 65.5641 143.639
83.3871 57.9511 117.8
58.3318 -3.45262 131.614
158.09 65.1039 195.398
173.709 81.6851 147.002
41.3072 41.993 157.746
132.781 86.4927 174.928
109.202 43.7554 136.269
149.696 81.9286 198.784
177.557 56.0999 125.964
91.2536 4.53281 76.6835
116.075 95.5037 153.118
171.792 33.5836 130.523
89.8653 66.7021 106.917
114.457 78.0924 149.089
97.5925 22.1366 134.579
178.1 92.8542 121.293
101.143 90.3489 122.812
161.479 87.3632 206.308
100.616 86.7767 121.831
145.693 109.922 176.46
174.865 63.109 133.49
153.557 88.2113 201.356
96.0602 24.5956 55.0645
100.675 33.944 187.806
154.658 37.3929 127.89
81.1357 58.8353 147.4
171.526 23.5243 114.283
101.093 59.4024 128.496
146.777 23.3832 98.5194
49.0928 3.03998 199.603
150.796 26.0328 105.064
49.176 11.423 207.771
158.177 82.4171 204.684
174.6 37.7993 151.388
122.616 95.9306 161.305
58.0881 41.2939 161.475
69.5437 52.6094 164.07
126.73 105.81 162.877
153.303 56.6708 185.86
120.841 14.8851 40.415
44.2931 51.6666 141.299
144.458 13.5064 67.4216
185.782 69.467 138.116
82.5237 83.0551 81.8833
174.757 95.1499 113.706
145.544 88.2213 192.368
176.193 54.9786 171.57
176.342 71.6023 135.409
71.8953 6.90123 172.269
153.505 36.9553 126.024
128.622 100.33 172.644
48.5077 39.5886 176.913
94.4831 24.0153 187.53
161.44 40.0312 138.09
134.478 77.9515 179.637
136.047 20.0156 72.7023
99.5129 94.4189 118.039
97.2925 27.0248 74.1061
183.691 62.9549 122.172
72.4376 -12.2324 134.605
137.958 50.2383 181.844
179.622 34.4361 141.566
64.9611 24.4423 189.596
130.098 106.285 164.437
137.488 44.6624 164.678
162.463 27.8587 114.579
122.856 98.1419 163.318
66.4506 16.5317 212.514
158.397 62.844 197.347
101.981 100.591 126.86
74.4451 51.9578 120.982
23.282 21.0885 161.999
158.769 48.4968 168.851
92.2518 36.5292 185.973
45.9283 20.9483 195.213
167.636 30.9461 122.988
101.67 71.0545 127.55
133.995 30.3529 98.3524
88.0052 17.803 208.541
119.654 63.6224 165.356
32.0295 29.0976 174.013
66.8374 -10.3482 90.9805
80.363 100.028 81.3809
83.8928 62.6055 105.673
134.015 21.6546 81.0799
178.739 70.7771 133.048
72.9286 22.744 191.503
44.488 -13.8717 157.629
65.0228 51.6968 160.645
93.2539 63.5561 111.458
130.856 45.936 162.581
73.7228 -2.94787 112.331
118.094 46.7462 155.269
78.6469 56.2837 135.598
156.17 58.8827 190.539
87.4721 96.7854 96.5118
132.653 104.365 176.175
30.6769 36.9961 152.086
102.284 66.5346 131.448
74.0309 50.6802 147.272
114.614 49.054 146.692
93.7877 3.69543 75.3134
169.521 73.6488 204.019
68.0222 6.84926 203.091
126.573 66.2485 176.547
124.288 12.2742 38.8971
103.959 84.481 129.417
174.185 74.6388 139.783
59.1758 10.6243 211.427
183.691 62.9549 122.172
75.2059 14.4572 210.269
168.475 56.4207 187.798
76.3526 51.7163 108.6
178.018 48.8928 161.147
132.06 10.0529 45.8722
132.841 29.9152 96.4873
120.869 73.5253 162.281
153.824 36.0806 124.96
161.03 50.2224 175.626
71.1153 42.927 154.647
82.8513 8.57446 98.086
115.602 63.2083 158.844
107.339 35.5306 115.224
43.6841 26.9995 176.415
151.956 103.982 191.675
171.258 73.1163 180.552
90.3554 48.3291 140.949
145.981 31.3042 106.803
47.7318 -6.92193 175.439
122.192 46.3099 158.735
121.533 99.952 160.495
153.911 17.8338 87.3695
134.706 53.3722 178.294
133.549 69.4096 181.679
74.5788 53.1702 161.361
84.8775 37.3286 184.983
77.7786 -1.21966 89.5805
121.562 88.7862 159.344
153.108 51.0705 170.674
73.8176 88.1321 61.9477
115.044 22.5484 61.502
159.922 41.3184 140.335
55.4753 45.2172 165.923
73.021 90.9757 49.9778
55.4737 -15.7482 112.676
100.002 48.102 135.575
42.3198 -4.60446 195.397
63.9983 56.2531 153.775
148.171 26.0321 102.398
46.6907 33.0521 162.949
143.628 90.9303 188.627
113.137 30.406 104.264
118.034 20.8242 60.058
64.2143 35.3659 175.7
140.614 25.1553 93.3355
84.3248 64.0255 131.88
81.6342 35.4562 187.427
24.7831 29.8136 147.765
75.0834 1.93666 116.241
157.779 55.8949 182.203
94.0851 27.9758 191.672
102.553 57.5801 132.31
44.1441 -13.229 174.848
67.7314 37.2139 175.236
129.382 28.6021 90.8917
63.9118 26.2281 188.754
182.244 91.5677 121.714
39.6073 26.3535 186.057
136.564 72.9947 184.335
53.6263 7.87657 210.141
152.847 57.5575 185.934
145.714 60.5682 186.957
177.121 30.4992 132.777
180.792 65.5172 127.652
95.8213 106.216 102.541
123.389 28.1265 86.6663
62.979 13.8333 209.932
76.3526 51.7163 108.6
64.1641 45.0752 153.615
57.4736 -4.99684 144.838
65.8277 -1.88625 186.124
137.8 79.2767 184.242
102.279 34.7378 134.086
50.5639 -10.0904 149.769
133.513 23.3917 84.1993
40.2791 22.3687 183.896
104.564 29.0793 94.3276
189.05 74.11 129.645
120.522 15.7597 41.4795
120.031 86.1494 154.475
85.6434 50.7465 123.458
134.452 42.1595 148.913
168.591 82.8961 182.05
85.4659 45.2886 160.77
54.4061 15.0454 210.122
63.3388 61.6233 152.923
142.889 46.037 167.986
179.229 90.5213 129.185
145.577 85.9857 192.336
138.061 47.3844 162.613
183.787 77.8006 147.581
98.282 38.622 171.031
99.3594 84.1156 118.943
72.0225 -0.798186 116.63
58.4073 -5.31394 167.926
178.781 43.2074 152.896
52.4259 -9.48166 140.433
69.7806 28.1012 188.975
70.693 26.3276 188.827
126.399 7.54928 27.4419
61.7992 -9.68448 133.078
94.8658 11.0718 61.1209
158.737 53.2711 179.01
109.443 94.2386 140.894
94.0265 42.6913 163.593
138.306 86.4698 182.241
48.2333 -11.1977 162.193
142.171 48.3335 163.066
172.456 47.2984 173.002
62.8277 -7.84933 130.939
176.64 23.538 118.624
135.148 30.7905 100.218
116.323 36.8207 128.133
186.055 66.904 129.971
55.2462 -8.95807 138.031
165.16 34.8572 128.426
68.4598 -1.79595 120.139
66.8264 46.6931 137.114
103.399 37.4111 135.984
74.6803 -10.6491 88.8833
60.3861 49.7142 169.338
90.4994 7.75071 101.057
88.4099 13.9321 135.748
143.611 103.481 186.765
147.956 41.8236 155.119
118.307 18.2612 51.9121
143.918 78.3549 192.471
164.853 42.1945 146.731
70.5598 7.32601 172.459
128.584 70.7691 175.315
106.979 74.1297 136.95
48.2627 48.775 159.897
146.313 36.8922 122.979
99.3561 39.6069 165.847
122.464 23.4374 69.5737
163.563 41.769 143.876
52.0337 18.6412 206.455
97.8267 15.436 40.5738
84.2124 64.2696 114.735
123.147 15.7605 44.1454
80.9513 -3.80629 86.0815
164.581 80.3176 201.754
138.277 74.769 187.149
46.683 22.8078 191.093
164.034 82.9049 207.919
153.87 35.2304 121.915
155.282 65.9656 194.787
50.7853 10.9739 209.563
108.978 77.265 138.731
97.0949 98.865 117.418
172.427 73.7147 140.014
74.689 75.8111 79.8484
54.059 -17.3149 95.6897
80.3071 30.8748 193.612
58.3831 -3.00717 194.207
52.8124 -7.21139 169.685
40.843 30.0968 175.836
36.7041 19.9856 190.418
120.887 14.0348 37.3696
86.4185 66.7743 98.3079
129.688 16.1875 52.3329
95.4344 9.94093 78.1913
135.199 59.18 179.306
138.957 63.2393 180.856
90.2048 11.3959 96.0948
48.6106 -11.5373 155.069
179.224 56.1858 121.697
170.565 78.1834 169.604
49.7188 -2.63326 190.361
44.2275 40.8872 175.501
86.8916 55.8751 110.224
178.287 83.1328 144.368
168.225 92.2554 121.641
75.8142 54.3748 141.014
113.97 31.7183 107.194
138.298 68.6094 180.004
129.6 94.0855 172.432
104.028 22.8972 56.9713
65.3422 50.8222 159.58
76.6592 1.18445 107.937
105.944 25.2656 80.9654
49.5112 36.1144 170.674
73.0811 45.7592 146.334
152.028 20.8459 93.7242
175.683 79.5111 144.683
96.7902 23.6845 56.9716
120.387 31.0041 101.251
134.403 64.5623 177.463
101.114 30.3762 125.108
139.982 58.6829 187.726
165.888 91.0586 202.715
60.6012 41.5387 146.997
158.901 24.3223 107.961
121.662 12.2734 36.2312
140.028 10.8933 57.9059
82.4422 46.7097 152.119
63.4881 62.9964 150.9
128.003 73.0533 171.385
67.2712 31.7092 184.318
109.069 100.97 139.01
132.887 29.0649 93.4418
75.2059 14.4572 210.269
177.474 52.7943 138.05
69.8004 60.0588 143.934
143.619 73.0699 186.39
73.2587 74.0836 105.264
106.755 82.2339 133.042
98.282 38.622 171.031
135.224 87.3559 179.649
135.258 85.1203 179.617
121.208 36.0084 127.448
169.697 91.8185 122.441
129.735 22.9532 79.6683
100.289 26.5963 138.3
67.4623 5.51263 202.143
60.3247 24.9984 208.416
139.364 102.544 185.321
82.3011 60.6583 146.252
174.193 67.0939 135.65
104.198 28.2655 88.3106
141.628 87.795 186.846
120.023 70.8277 162.365
39.7897 25.491 184.002
155.173 42.1185 142.011
125.569 67.184 172.659
64.7202 -3.17422 181.214
154.652 60.17 192.783
91.5218 37.4403 184.066
47.7527 35.1904 170.906
31.5227 -8.57823 149.391
70.9575 66.8879 136.791
151.641 90.9203 197.616
54.5374 59.4707 137.96
55.9192 42.9451 168.863
113.2 52.5647 149.959
86.3314 74.8664 95.3906
62.2448 5.81426 206.906
163.427 44.3198 153.012
63.4881 62.9964 150.9
128.622 100.33 172.644
88.5647 36.9289 185.478
85.2569 2.74304 101.72
147.136 77.4567 196.054
180.174 61.1068 122.635
50.3828 3.46549 202.459
100.977 55.7936 130.487
53.2199 16.8433 208.289
92.2766 39.2998 179.946
135.383 11.3781 50.4772
157.841 70.4375 197.517
151.844 86.437 198.542
62.5641 4.93964 205.841
169.984 80.4676 165.674
117.464 66.3558 159.635
46.2768 11.4466 203.124
93.5567 75.2326 108.531
104.789 76.8631 131.228
86.6716 93.2375 93.5501
142.567 29.1408 98.1623
183.936 79.1737 145.558
128.273 86.9654 168.49
182.148 58.9328 120.317
89.6205 78.4272 100.028
171.153 35.3328 132.652
136.131 38.5534 121.378
47.8237 21.8602 195.971
57.2339 46.1412 165.691
150.575 82.3906 198.668
68.9802 4.2254 199.898
65.6905 61.6484 153.608
83.2292 59.0455 103.702
174.878 89.8996 136.846
143.785 107.625 178.715
173.34 59.2293 184.132
119.77 67.2312 163.365
110.202 12.3557 18.634
62.7375 47.2005 159.896
140.936 72.5342 189.783
161.746 32.6939 119.785
100.832 106.545 115.987
134.577 94.1113 175.783
183.816 86.9627 132.546
129.766 105.774 168.515
111.345 34.2563 114.655
39.1426 32.2465 180.136
120.94 100.851 159.578
63.9118 26.2281 188.754
93.3037 71.636 109.531
101.57 54.8947 131.403
95.8145 37.5269 182.464
185.62 87.0365 129.268
104.772 43.6809 136.88
89.521 62.2674 103.881
116.698 21.249 60.2478
81.5407 80.3697 80.9766
83.186 16.6828 219.289
166.647 78.9817 203.472
76.114 24.0813 195.118
82.9676 80.783 84.8228
138.306 86.4698 182.241
47.7653 39.1144 178.019
63.4308 1.47765 198.612
126.34 79.3589 166.645
72.4376 -12.2324 134.605
61.7048 59.3018 157.159
109.762 70.4973 143.587
74.6128 15.3562 209.352
68.0994 -11.4688 139.252
64.9574 20.5895 208.732
120.031 86.1494 154.475
61.4268 50.3959 154.059
136.257 75.2546 182.386
169.06 65.6054 202.974
69.7221 -0.377803 178.538
73.8176 88.1321 61.9477
41.61 -12.3916 176.218
108.127 40.2319 131.327
45.725 2.56506 198.044
112.303 29.0937 101.335
111.081 82.6237 141.535
171.511 51.3076 173.182
132.753 97.6585 176.079
138.523 13.5658 57.1372
151.566 100.398 191.685
91.4221 41.6084 174.035
41.7683 11.9193 196.686
164.034 82.9049 207.919
74.4993 48.64 134.058
130.77 104.839 172.403
39.425 6.88803 201.996
122.404 82.5536 158.142
111.715 49.0776 142.045
79.0569 71.4977 104.431
105.369 51.7122 138.916
106.29 42.3937 134.636
82.0428 104.038 84.2267
92.7372 27.0153 194.875
156.039 36.1179 124.654
165.35 23.9111 112.112
41.7725 -2.0171 201.562
153.657 81.5045 201.26
94.0851 27.9758 191.672
175.724 67.1919 130.392
178.473 63.2565 126.935
33.6504 45.2843 138.653
44.2275 40.8872 175.501
163.654 40.0684 137.785
162.561 83.3419 207.119
56.3751 39.5196 158.662
110.015 74.0939 142.587
52.6807 11.8857 210.321
171.673 59.1434 188.399
120.694 33.8215 123.454
134.92 40.1193 135.699
112.648 43.6831 144.878
64.8072 54.7948 162.732
166.325 39.2189 137.405
96.3534 39.9458 170.305
79.2655 42.9048 164.626
108.949 88.4308 139.882
156.178 76.7431 192.776
102.942 30.6818 105.677
123.549 90.5362 164.139
109.712 62.4174 145.514
67.6268 70.569 126.191
117.311 101.786 153.024
112.3 78.5902 143.336
64.2029 21.2687 222.978
76.5108 53.1606 132.826
80.9314 53.1639 105.966
168.429 92.8495 142.821
76.4283 6.66044 162.554
65.7037 4.5886 202.374
81.6881 29.5997 190.377
174.314 61.8436 158.79
90.0786 29.2501 192.242
101.874 30.9927 176.499
169.777 55.6929 177.514
61.3855 60.1764 158.223
100.806 30.0974 113.032
101.466 29.8046 134.138
145.539 51.3471 174.752
116.158 101.348 151.159
147.746 86.8732 195.075
120.38 99.5143 158.63
68.2206 54.4195 161.246
77.7968 47.1946 144.69
151.143 99.0489 191.727
178.586 85.879 140.322
39.2417 43.3289 156.028
168.633 78.193 198.14
114.883 29.9447 107.046
115.461 100.024 149.22
151.773 51.4953 170.864
77.6945 14.4701 211.944
141.872 45.5872 167.112
170.814 75.3884 177.612
99.0786 35.7784 183.001
172.149 49.5583 171.053
91.7277 92.7161 103.95
80.6241 7.15192 101.405
166.868 22.6239 109.868
140.484 10.0065 57.832
32.4403 8.73315 190.869
68.5378 76.4298 61.5241
129.155 35.3923 116.246
91.3894 26.0547 198.079
84.0578 -1.92174 82.6466
149.773 45.8213 158.956
108.022 25.315 79.6692
77.8286 98.3267 72.624
192.338 72.5934 114.028
159.498 37.4309 130.25
67.3981 -1.39551 122.31
167.885 94.2123 109.597
146.965 39.067 127.964
162.619 58.4716 194.69
124.542 31.1029 98.6584
122.226 92.3463 161.315
51.5551 -14.9499 146.544
75.7519 65.2375 132.07
81.1864 31.3368 193.496
171.348 40.9331 147.837
72.2511 71.1663 120.511
108.353 15.6709 35.0836
48.9423 -11.0266 150.991
77.8286 98.3267 72.624
48.8063 42.3348 172.867
110.662 90.2051 142.695
130.887 15.7748 51.1526
119.782 38.1338 133.728
49.6072 5.2269 203.597
100.372 101.04 125.069
156.574 29.6065 111.376
47.9377 -17.7072 116.722
110.372 57.0473 146.367
41.196 9.19737 198.751
170.827 53.9071 178.356
66.0731 14.3326 209.51
144.017 94.5147 188.618
83.861 11.4734 177.739
48.396 1.71551 197.664
80.7028 4.06604 98.3275
151.869 109.536 178.631
53.6969 12.3356 211.196
129.766 105.774 168.515
103.553 93.4477 127.565
107.655 79.075 135.907
24.8 19.8012 159.754
80.5845 11.8366 180.215
101.372 32.7298 179.618
117.669 22.5491 64.1679
116.562 28.8772 89.6381
133.715 81.0982 177.762
129.944 50.2483 172.856
114.816 24.2611 66.6025
189.747 75.4344 131.584
136.568 104.792 181.697
179.681 37.5098 145.634
102.988 32.3702 112.758
116.821 4.61938 3.49005
106.809 76.3774 135.991
64.1894 52.9232 167.842
35.7246 41.4809 156.492
57.8071 13.2847 211.649
163.366 93.2813 201.072
103.756 88.9643 128.491
180.958 82.2832 143.988
179.167 83.5948 144.252
104.216 51.2745 137.051
65.9694 12.1092 208.488
144.463 32.5914 109.048
114.913 77.2056 149.015
167.911 89.3484 168.089
146.262 16.1189 74.2714
34.0746 13.5933 196.76
67.4063 -8.94041 118.178
138.92 104.817 182.382
71.9408 6.05095 169.224
79.1569 69.8683 124.589
164.577 94.254 196.878
56.7162 22.3122 204.844
152.98 112.138 154.279
56.1887 33.9905 169.725
147.323 85.5244 195.117
99.1437 64.347 124.788
71.9185 -5.5603 105.481
151.291 47.0728 166.838
179.03 37.8737 150.776
173.29 43.5333 155.678
107.335 57.0831 140.729
171.229 63.9542 195.587
179.523 43.6815 151.789
143.951 76.1193 192.439
177.176 52.5867 152.223
95.3012 13.8059 58.0656
163.454 20.4606 101.227
44.3274 16.3912 199.416
70.0812 -3.39845 108.79
102.076 84.9544 125.645
167.347 63.8311 200.16
53.7738 -8.52113 137.23
65.2429 37.201 173.561
151.383 47.9109 170.874
82.0022 9.64011 147.686
154.751 48.3858 172.433
101.664 24.0255 69.4268
70.2436 73.0372 112.735
61.7631 -3.68564 182.626
89.7226 19.6853 47.8034
174.783 85.2087 151.945
102.897 39.1482 139.103
169.06 65.6054 202.974
98.1442 97.0793 118.261
107.703 28.7283 90.8606
34.8357 56.1982 96.2207
134.863 44.6617 162.012
184.902 69.005 138.232
157.37 21.6855 103.092
106.424 16.9946 34.3568
161.848 94.5685 203.317
58.4157 55.741 152.521
68.8765 2.00197 198.875
90.8815 67.1519 107.792
166.716 52.958 177.903
51.1583 1.70408 201.32
50.8009 34.0012 163.403
150.234 61.4808 190.381
99.5496 27.4363 110.144
173.411 63.6883 185.186
141.197 68.5858 184.651
132.823 102.118 177.134
26.2424 43.2419 117.441
93.5583 24.4036 190.692
169.511 43.0949 151.146
97.0834 39.0346 172.212
178.469 33.9984 139.701
138.556 11.3302 57.1052
157.355 52.0075 172.118
103.662 17.0061 30.7004
148.985 46.1974 163.108
125.274 42.8852 151.2
118.31 69.0534 159.551
90.8806 13.8026 84.9256
101.995 21.9975 55.2219
76.114 24.0813 195.118
97.8828 75.6223 117.024
178.1 92.8542 121.293
130.5 68.06 179.055
172.109 64.4162 195.471
186.055 66.904 129.971
116.141 68.1659 156.811
141.414 28.7032 96.2971
20.5607 8.78072 144.052
53.8742 38.1214 160
86.4031 46.2857 154.595
82.9108 47.2082 149.031
128.401 109.749 139.474
91.8456 25.1679 198.005
168.292 54.7445 179.726
37.2308 23.5578 191.399
57.7562 38.2445 155.426
111.782 70.0117 148.35
55.2971 32.1432 172.854
104.395 41.4818 133.877
131.37 37.9682 126.067
68.5114 24.0548 189.101
63.8994 24.8428 191.767
123.754 23.8629 72.4294
125.515 95.9071 165.952
173.315 53.92 180.032
172.859 54.8068 180.105
129.347 108.278 149.421
45.3763 32.3947 176.247
156.625 55.4573 180.338
103.685 31.156 104.57
91.7612 49.8247 131.687
94.7555 54.492 121.235
82.5237 83.0551 81.8833
169.267 82.7641 160.754
109.202 43.7554 136.269
158.769 40.8807 138.47
66.1182 31.2715 182.453
114.711 9.34426 14.9452
176.143 59.6105 129.232
101.305 34.6623 169.555
99.7009 26.2524 192.894
84.0263 61.2792 135.925
78.903 101.85 77.5667
108.219 41.07 135.363
180.116 58.0331 118.567
75.0702 -7.06472 88.8734
149.447 107.59 187.018
51.8337 44.7666 162.382
51.762 -15.5804 128.335
167.897 26.9978 117.856
94.5911 35.1689 189.672
167.973 58.1578 190.918
47.4449 -15.899 146.091
61.2077 29.3132 189.165
151.864 54.8721 185.027
90.3671 87.8316 100.04
133.722 40.532 136.879
172.389 89.8867 135.17
115.091 44.5463 149.599
87.2315 94.5741 94.4987
92.5891 4.10804 76.4937
84.1767 29.6126 192.052
102.077 29.048 187.552
37.5086 29.925 184.372
86.3365 48.2182 144.532
66.4506 16.5317 212.514
102.897 31.5321 108.722
83.6808 0.956556 99.8969
91.6293 43.5165 165.953
121.77 93.233 161.389
118.857 41.0607 147.017
55.463 43.8319 168.936
177.226 83.5332 146.539
180.046 38.3236 151.651
189.037 67.6473 112.405
110.055 26.2147 81.4186
110.042 27.3681 94.5589
53.2239 23.2348 199.28
148.691 54.92 178.399
97.7875 68.3927 121.996
143.001 94.0649 187.743
125.643 55.1679 168.463
64.2088 -9.12439 127.704
56.9809 42.5446 166.692
43.8369 52.5534 141.373
56.1591 60.4069 136.737
86.3272 88.8028 90.5145
82.2051 68.6792 117.086
157.887 94.9926 200.841
121.79 66.7455 168.128
89.8868 47.8306 144.037
36.0696 7.79842 197.423
161.924 17.8238 96.3578
94.1888 30.1992 192.695
179.229 90.5213 129.185
68.7094 0.486481 148.401
58.7266 59.8726 145.462
87.9865 98.9723 100.506
181.995 79.1122 147.844
97.3105 95.767 115.331
38.1972 15.9277 194.2
180.945 30.0873 134.263
89.4815 23.7576 200.333
169.865 75.5448 196.927
68.8015 8.94067 182.818
82.8561 68.3153 111.944
143.688 36.8915 120.313
123.968 13.1488 39.9615
120.45 55.7014 157.072
116.698 21.249 60.2478
78.2238 54.9349 135.64
178.586 85.879 140.322
41.9622 48.0206 143.595
122.589 34.7334 124.212
144.001 84.1992 190.512
141.313 72.1946 182.66
188.685 75.8349 133.755
74.2379 50.0496 129.064
50.7313 16.8304 206.613
54.24 23.6846 200.155
40.9056 -1.09381 198.665
140.019 88.2441 185.055
116.327 50.8283 149.505
102.221 34.2028 140.145
92.2834 85.1226 103.78
159.903 85.5767 204.485
149.395 33.4675 115.444
56.3754 42.0583 168.789
63.2278 8.4997 207.813
67.4623 5.51263 202.143
189.713 77.67 131.616
171.686 63.0674 195.513
138.298 68.6094 180.004
48.1417 -14.5745 148.03
35.2566 2.86523 197.475
64.9611 24.4423 189.596
119.617 102.661 156.755
124.922 96.806 165.036
175.463 71.1403 135.525
120.387 31.0041 101.251
118.887 57.8389 162.362
150.875 20.4083 91.8591
119.753 54.377 155.133
99.7805 21.9603 55.5276
32.4198 14.8927 198.015
113.421 11.4574 22.2164
101.218 103.738 124.985
184.069 67.6927 135.303
123.681 58.7272 167.768
153.217 67.3015 193.069
144.96 11.7693 64.3022
72.9699 35.8301 183.582
140.458 44.0205 150.125
124.723 64.4863 172.743
154.919 30.9059 112.63
126.448 90.5126 168.786
186.706 69.0787 134.955
124.399 102.164 165.174
137.588 65.8997 181.078
169.615 50.3957 172.423
35.4557 12.3183 193.525
175.487 23.1003 116.759
82.1528 23.7067 196.298
33.9193 -14.4808 126.776
142.889 46.037 167.986
172.676 70.9198 148.022
83.9982 36.8666 185.099
131.914 107.744 158.146
142.08 50.0341 169.157
101.853 29.5362 153.263
117.017 15.297 38.9294
54.12 13.6844 211.154
98.5016 41.9155 159.936
149.636 38.2174 127.584
137.841 69.4962 180.078
86.4201 15.9453 180.469
166.247 49.9208 170.863
147.899 71.7712 187.802
61.0462 6.22687 208.086
162.076 69.9892 201.974
172.598 58.7551 185.238
94.6133 12.5526 82.3752
157.147 37.4058 129.565
52.2643 -12.2401 145.469
33.3509 55.2499 98.4334
165.871 80.7431 204.61
27.3745 44.7618 106.198
36.0572 6.41312 200.437
106.607 21.2096 52.5557
175.488 76.4496 139.625
162.603 96.428 199.197
103.375 103.24 130.738
171.274 75.8158 148.276
73.6692 5.44731 119.508
126.141 92.7725 166.837
59.632 9.73752 211.353
147.831 35.605 120.735
43.2075 13.718 197.519
167.309 49.5204 168.693
70.4898 30.811 187.901
71.439 7.78802 172.343
90.7033 99.8112 107.208
64.1776 13.4207 208.751
138.764 23.3931 89.5312
43.0611 -14.285 153.783
158.554 54.1335 181.065
68.6109 17.348 189.005
57.0729 5.2656 208.623
141.313 72.1946 182.66
56.0086 69.2069 84.3681
50.507 -0.470677 196.336
151.213 50.1587 169.915
136.917 92.7511 179.481
51.7385 -5.65757 184.997
149.773 45.8213 158.956
167.139 54.3068 177.861
124.208 62.2994 168.749
170.748 59.5317 191.561
179.427 31.3745 136.508
84.2124 64.2696 114.735
67.0656 -9.52227 96.007
62.2068 37.2368 167.923
168.332 32.2706 124.927
156.858 67.7521 196.61
101.052 46.3162 136.417
56.1887 33.9905 169.725
80.2868 16.7064 214.642
168.449 43.4954 153.317
82.4249 51.6447 119.875
29.7565 25.9866 170.251
150.503 47.4489 170.99
65.9689 29.8984 184.476
74.3984 -3.07989 91.0344
53.2239 23.2348 199.28
115.22 74.9457 150.964
89.0236 52.6067 122.004
108.205 32.0686 107.995
167.169 73.6237 203.334
48.9473 28.3863 178.733
156.039 36.1179 124.654
131.334 66.8336 171.858
61.7886 6.70105 206.98
74.8678 5.0347 118.328
132.386 38.418 126.942
78.6705 92.0941 71.4215
90.5414 71.6474 105.875
157.538 56.2224 190.317
142.991 35.567 118.374
153.262 66.4512 190.024
41.7767 6.9131 202.681
29.0345 39.6808 150.327
170.639 33.1459 128.658
40.0675 31.8582 176.975
90.4933 35.6051 186.205
150.62 104.407 191.865
89.5551 47.3199 148.114
120.098 61.3503 168.296
91.7267 16.5002 84.8418
85.0952 -0.0154077 106.757
67.4567 72.8167 125.233
26.4592 7.10412 173.503
168.492 87.0642 172.019
87.7085 67.1998 101.164
63.642 32.6439 177.764
96.2901 63.5203 117.095
139.956 50.8349 173.499
66.7358 53.4711 163.459
76.1997 69.3569 126.001
141.014 110.104 158.937
35.2566 2.86523 197.475
74.7177 -3.95451 89.9699
161.126 65.0681 201.035
153.134 61.4572 195.028
64.8848 -4.17903 126.661
140.848 55.2209 180.496
126.092 14.8866 45.7468
69.3493 11.4307 196.907
154.166 72.2226 194.008
104.05 34.5085 120.714
184.886 81.5561 136.37
96.7297 75.1846 115.159
176.309 73.8379 135.441
178.838 61.5316 122.825
102.773 63.4123 131.342
140.936 95.4008 186.026
126.983 63.6733 169.392
80.5991 1.84261 97.305
133.673 65.4734 175.556
121.176 71.2654 164.23
129.04 69.8823 175.241
130.513 92.312 172.284
87.6244 5.46754 70.1295
61.8547 -0.308827 196.789
118.625 82.1152 153.61
35.2277 14.031 198.626
163.208 96.9144 197.1
114.988 67.7282 154.946
98.6261 40.518 163.94
61.4268 50.3959 154.059
87.4261 3.63056 104.46
146.684 107.602 183.362
166.325 39.2189 137.405
97.0574 69.3038 120.089
130.023 72.5677 176.148
127.063 16.1867 49.667
104.529 16.0828 33.598
144.007 36.0169 119.249
41.7596 -8.47979 184.322
101.132 33.0572 187.732
52.0697 55.8369 139.266
138.745 49.8622 177.692
162.109 67.7536 201.942
62.4063 28.9006 187.985
145.468 39.272 143.317
103.753 17.8442 34.7364
177.321 47.5683 159.208
188.892 80.2817 135.8
84.9191 30.0868 190.946
132.496 15.3257 52.9438
89.7226 19.6853 47.8034
83.7536 28.2638 192.094
24.538 -6.73312 138.264
171.254 69.2635 199.687
64.8785 21.1367 201.682
108.779 67.8119 142.681
51.6844 43.3934 164.405
75.1621 -1.14922 113.163
37.2432 24.9431 188.385
130.579 87.8408 172.22
155.421 29.1688 109.511
135.383 11.3781 50.4772
102.118 37.0568 159.377
104.758 27.0635 79.1322
100.463 76.4733 122.735
176.072 32.2849 131.935
137.717 96.299 182.443
175.927 62.7086 131.319
90.586 17.4479 79.9632
167.832 89.8956 161.04
165.635 87.462 203.716
126.73 105.81 162.877
143.813 45.6488 164.825
168.181 65.1433 203.09
101.84 28.1509 156.277
58.9334 -9.35778 138.526
69.3077 18.6725 190.944
62.6338 44.9771 158.873
159.922 46.3958 160.589
63.7331 53.81 167.916
116.379 22.1236 61.3122
172.295 69.9453 184.408
153.536 91.8322 198.374
27.637 10.3124 169.342
101.923 74.6511 126.549
172.555 81.2475 145.137
162.147 97.3148 199.271
185.176 63.9032 119.959
109.082 56.6218 143.511
105.089 22.4968 54.8005
100.898 30.9355 117.068
104.53 23.6988 63.9788
32.3616 11.819 193.947
159.87 87.8123 204.517
55.5791 47.4406 166.946
95.8848 39.4473 173.392
81.9267 100.429 86.2176
85.1206 53.5658 113.469
64.7789 4.97687 205.536
76.0672 57.9714 140.014
102.222 102.803 128.873
164.77 28.7341 118.309
78.5794 4.86692 102.669
95.1218 22.2661 185.401
174.488 43.1207 154.497
69.5733 3.32644 200.815
50.5395 35.4109 158.408
173.286 65.0858 181.182
101.877 98.368 125.837
121.767 22.1129 67.6346
179.187 29.1633 134.494
95.8661 8.82222 94.2712
168.021 23.0616 111.733
51.4613 15.9192 208.52
54.7462 10.5498 212.039
155.046 72.6846 193.892
166.717 83.4407 204.526
128.601 103.951 169.663
126.224 75.7502 168.635
136.777 21.6431 84.7363
159.498 37.4309 130.25
71.1153 42.927 154.647
130.869 75.2653 176.064
90.7962 26.9537 197.162
140.11 63.677 182.721
56.0086 69.2069 84.3681
146.39 90.9189 192.284
154.171 104.019 191.369
186.947 71.29 136.968
124.723 64.4863 172.743
105.398 32.9303 107.384
139.936 105.266 183.256
140.993 45.1252 167.228
47.5494 -6.05948 177.494
154.419 75.8191 193.008
152.028 20.8459 93.7242
142.171 48.3335 163.066
23.152 0.862279 106.242
109.368 80.8494 138.721
67.9891 9.08486 203.123
125.044 24.2884 75.2851
85.9345 45.7872 157.682
68.9167 70.9945 129.047
121.666 91.0096 160.367
58.2133 1.77928 203.375
150.491 112.125 152.604
164.531 72.2377 203.681
84.4629 30.9736 191.02
159.181 78.943 198.446
174.948 68.9534 131.531
163.199 48.5713 168.239
100.683 82.3055 121.767
144.83 76.5813 192.323
93.0442 24.7553 196.824
88.9877 38.2777 185.436
171.121 47.7232 173.192
80.1742 37.2784 183.613
44.8619 30.2078 172.253
51.0325 -9.5919 146.682
27.4169 1.94156 160.183
138.041 104.355 182.497
31.9696 53.9862 91.5417
96.1691 23.0374 101.471
131.487 54.2704 174.711
78.4153 10.9491 177.475
127.057 51.6572 165.196
74.6416 24.5183 194.317
124.196 8.89735 24.7341
68.1582 42.4155 156.059
145.262 70.3852 188.149
82.0605 58.447 144.239
129.766 105.774 168.515
144.05 66.8738 182.216
84.1873 102.155 92.9934
107.485 58.4562 138.706
117.439 83.9131 151.777
58.6612 28.7653 193.549
45.3805 41.3249 177.366
31.98 23.5563 186.067
106.505 36.757 122.422
149.284 54.0211 179.316
107.157 38.9317 127.406
92.5588 34.2692 187.922
140.608 53.0097 178.483
71.7047 38.1752 174.699
24.7086 18.9631 155.718
84.0213 67.5995 100.669
84.4629 30.9736 191.02
130.409 67.2219 175.019
23.7051 22.4373 161.957
51.4887 -10.4787 146.608
89.3919 6.46274 96.1465
40.0263 -1.55582 198.781
158.194 92.7326 202.79
38.1924 45.1147 155.186
153.677 77.8836 204.241
69.8885 16.3882 194.874
55.1153 17.7551 209.047
161.736 74.4847 200.057
50.1159 -16.7485 145.711
86.1177 29.6742 189.765
95.098 18.2893 57.1392
64.3556 23.956 191.693
144.627 53.1207 174.9
73.2853 28.564 191.525
41.1836 7.81206 201.764
37.235 9.62141 196.275
45.2185 -9.70544 179.79
60.8867 -7.9109 133.226
137.448 105.254 181.581
175.413 88.4657 143.821
48.6106 -11.5373 155.069
116.014 26.3872 75.5491
142.889 46.037 167.986
138.63 94.5254 182.295
97.7917 100.189 119.357
78.488 92.9565 73.4765
67.638 -6.80033 93.9422
45.3763 32.3947 176.247
80.4706 85.7763 77.1526
42.9209 30.1462 174.54
43.9745 37.2907 176.501
95.0856 16.904 60.1526
114.067 74.508 149.099
171.295 74.7335 161.384
147.563 62.3304 190.761
90.2048 11.3959 96.0948
98.1829 27.5396 195.139
108.775 81.7483 137.805
131.313 95.8598 175.246
76.5108 53.1606 132.826
98.364 57.1782 124.807
106.017 67.8233 139.024
144.441 95.8635 188.576
86.833 4.52952 103.543
67.9547 44.3602 145.006
24.1653 27.942 152.875
142.072 60.1176 183.416
150.305 65.9398 191.436
118.094 46.7462 155.269
23.5427 34.9294 132.855
80.419 25.5533 190.502
49.1917 34.4503 161.611
81.1591 3.17925 98.2536
113.864 56.1247 151.93
95.69 38.9244 178.46
133.539 38.8557 128.807
83.3716 14.5958 177.845
178.15 34.873 140.765
158.152 99.9744 196.827
119.506 17.8486 50.7318
76.2221 14.907 211.143
94.2745 52.6082 127.336
136.543 48.6716 164.858
64.7995 21.6839 194.633
103.246 95.7076 125.616
86.0822 9.06154 98.655
46.04 35.9548 178.219
116.746 43.2469 148.345
53.6469 1.71698 202.996
56.3508 -3.90686 192.457
163.498 58.9336 194.574
159.968 43.0068 147.416
141.095 32.1165 107.489
83.4048 12.3602 177.813
64.1082 -12.5724 87.292
64.8495 9.43589 206.59
152.678 108.077 187.587
101.609 28.5495 190.64
62.9994 28.0017 188.902
156.842 82.8419 204.874
98.0944 66.1327 123.945
70.8244 4.6918 138.064
122.209 7.14737 19.9393
93.8796 9.61093 99.6033
70.6207 4.09777 116.884
51.0794 25.1179 190.514
37.0932 38.8205 156.27
94.9214 66.1807 117.317
73.5495 66.5856 129.362
68.1031 -7.61594 120.117
69.3442 60.9455 144.008
102.065 27.6627 190.566
65.4592 18.8524 205.612
70.4433 67.2397 142.924
86.1406 80.7351 91.4508
72.4801 56.7417 159.676
120.068 39.4948 132.696
102.466 88.5388 125.635
77.5674 79.4084 81.5139
122.192 46.3099 158.735
169.134 45.9732 168.397
125.975 103.95 166.997
110.185 71.8462 143.545
23.6221 16.5929 163.916
151.686 64.6648 188.201
58.6023 40.9421 155.343
70.5892 1.2376 191.562
129.676 12.2635 45.2194
85.7634 103.941 94.8167
24.0244 21.5626 160.893
143.868 67.7363 184.271
158.815 47.6465 165.805
41.3319 44.7636 151.719
98.4782 20.1495 55.6853
85.956 26.9157 194.802
158.204 22.9978 106.022
158.515 32.2068 119.216
63.6044 46.2772 162.793
154.606 106.753 188.314
169.45 69.1898 202.964
173.132 70.033 147.948
69.2453 6.66858 185.757
163.199 48.5713 168.239
155.664 99.9615 195.152
174.939 25.6877 122.924
100.203 20.7704 45.3587
159.298 17.8231 93.6919
171.992 55.7301 177.208
66.6529 47.6268 165.417
109.778 57.9462 145.45
63.9724 -2.40545 126.809
125.136 35.2813 119.829
119.873 41.5106 147.891
105.929 98.782 132.35
151.931 78.3449 201.459
148.032 88.2342 194.043
72.9363 55.8549 159.602
90.821 29.7243 191.135
129.185 62.3252 172.1
92.7818 16.0102 151.322
104.564 29.0793 94.3276
84.4196 66.1777 106.653
126.829 53.37 170.296
103.59 100.142 128.651
93.8796 9.61093 99.6033
105.963 96.5464 132.317
160.218 98.6385 198.544
105.929 98.782 132.35
180.224 74.2641 140.963
84.179 63.9665 104.64
94.168 33.8201 189.713
85.9145 34.1575 188.839
49.7972 34.9367 159.514
94.2867 74.3214 110.438
127.12 86.5277 166.625
132.371 63.6626 175.714
92.9993 21.8608 55.4539
101.496 26.2549 163.368
117.622 105.917 145.965
159.243 65.5416 197.263
108.798 26.0923 88.6578
132.52 108.23 156.049
144.067 102.595 186.691
158.878 67.2665 201.373
148.189 56.6571 181.518
151.707 61.0439 191.182
110.935 41.9088 142.064
78.1248 43.8525 159.747
33.581 7.78552 195.748
59.3912 27.8542 195.456
84.9714 52.1927 115.492
174.065 39.2332 144.412
131.324 31.2024 98.732
64.9574 20.5895 208.732
95.0303 41.7558 167.481
128.401 38.6102 140.62
67.1567 77.7049 64.7594
99.6583 46.206 142.666
70.7092 54.4324 162.921
143.412 68.6231 184.345
156.506 70.8623 197.706
150.528 52.7582 175.09
187.884 72.287 130.793
111.782 44.6064 141.981
97.4393 103.3 120.454
159.134 39.1558 134.36
77.1731 -1.70601 91.6774
151.831 57.1077 185.059
75.5016 78.2056 69.6697
125.044 24.2884 75.2851
90.1321 18.3163 174.937
159.722 21.7106 103.777
152.109 66.0136 188.159
91.8204 40.1866 180.02
190.352 75.9208 129.487
81.8367 46.2234 154.216
160.326 86.9255 204.443
51.5551 -14.9499 146.544
82.8605 11.1843 134.462
107.489 90.253 136.068
61.1906 36.7869 167.049
68.8345 49.8996 165.144
57.458 -5.15758 187.241
32.5896 10.1063 188.846
179.983 72.0529 138.95
124.951 85.6402 163.885
131.143 49.8357 171.676
170.798 70.1503 199.761
74.7577 28.127 192.326
31.5569 22.2075 186.109
155.274 96.3771 195.161
61.261 61.5739 154.219
160.637 68.1905 201.141
50.9421 42.9193 165.512
160.938 44.3069 151.337
151.773 51.4953 170.864
125.229 94.5461 166.985
167.876 33.1573 125.001
102.041 26.2246 72.4303
94.9247 21.7616 95.5698
101.264 24.1148 187.604
144.874 30.0162 101.893
155.062 105.867 188.24
171.544 49.072 173.15
113.545 56.9994 152.995
113.572 28.0627 80.9552
47.2042 -18.1102 144.077
61.584 64.5521 134.019
166.717 83.4407 204.526
129.657 38.7326 133.381
104.984 102.791 132.529
66.4539 38.1737 169.367
86.8741 15.0769 85.4949
110.475 59.2707 147.389
162.463 27.8587 114.579
175.426 49.1951 168.576
83.5574 58.242 128.886
32.1292 24.9295 184.044
144.914 12.6196 67.3477
98.194 105.159 116.334
32.891 52.2838 117.643
172 88.841 145.307
132.522 33.3285 107.679
103.976 49.0633 135.038
180.792 65.5172 127.652
164.97 55.958 185.248
82.2149 33.1719 191.357
116.049 34.3064 116.025
58.1554 24.1109 205.677
58.8314 6.18963 208.392
85.319 12.2083 96.78
105.411 41.9317 134.752
71.3507 3.18665 118.791
174.638 49.5712 172.728
71.0063 -1.24803 115.756
124.701 108.763 141.993
68.2321 2.45548 135.367
68.5628 -7.1886 90.7808
95.9959 49.3763 136.144
51.17 41.2065 160.411
46.4092 -0.0344667 192.869
43.4315 5.6137 201.427
69.457 20.0456 188.921
143.545 85.086 190.586
93.5924 20.9618 56.3705
92.5532 101.573 111.012
129.766 105.774 168.515
62.0745 28.3899 192.063
167.563 60.733 198.073
85.9061 39.1637 182.844
62.0157 40.5668 153.857
168.451 79.0554 200.195
172.871 56.1921 177.092
120.372 81.6539 156.392
120.753 41.9726 147.775
185.765 82.0181 136.254
59.6306 63.1052 139.319
75.1093 60.5952 143.207
69.5437 52.6094 164.07
87.4838 1.62689 88.2742
67.4429 -9.86187 88.8836
109.495 29.9554 100.724
63.9784 24.2956 198.817
90.2884 68.0509 106.875
134.666 23.8293 86.0645
95.5834 8.77537 66.0414
95.4564 85.0746 110.408
62.3507 -3.34164 128.031
176.371 40.1086 148.143
137.004 84.659 182.399
70.2567 59.172 143.86
128.729 86.0786 168.416
114.756 11.0327 22.0267
146.1 103.494 188.44
89.3919 6.46274 96.1465
40.229 -11.1166 179.453
64.8483 42.4757 148.441
122.562 78.9205 162.113
92.9523 18.8398 172.535
171.121 47.7232 173.192
114.308 99.5859 147.355
64.1641 45.0752 153.615
83.8349 62.0705 111.732
168.035 87.951 172.093
93.1834 81.9637 106.646
68.6268 42.9141 152.972
52.8822 -10.3684 140.359
67.5722 2.74824 114.26
52.5306 46.0911 164.322
119.057 101.324 155.806
159.968 48.0842 167.67
160.699 77.6557 196.201
154.861 27.8322 108.562
97.7267 28.4264 195.213
123.984 42.4597 148.344
111.391 35.9447 121.737
107.335 57.0831 140.729
149.136 80.5919 197.835
78.0426 22.7576 195.844
104.654 24.8401 78.1097
176.956 49.2932 163.318
96.5099 92.2191 112.37
90.0274 51.6713 125.892
167.479 47.2726 169.651
49.176 11.423 207.771
90.4826 17.7631 89.0676
56.7314 63.1288 134.673
149.915 62.3554 191.446
131.415 37.1179 123.022
148.971 29.58 105.359
131.67 101.68 175.268
80.539 12.6869 183.261
92.3126 99.3621 108.999
86.3314 74.8664 95.3906
68.0919 46.8867 156.123
50.2826 48.2894 164.659
172.737 95.6356 108.944
101.52 69.6814 129.573
64.7698 48.1002 161.645
45.2438 -1.85745 194.017
169.528 81.3544 165.748
56.2705 -16.0531 134.773
116.149 83.4876 148.922
40.4865 26.8155 185.941
157.062 88.6741 203.906
63.3883 44.2979 144.627
179.829 56.6721 119.6
66.9892 16.4118 190.227
98.4886 101.514 121.296
132.477 36.7175 120.851
78.4033 34.9691 186.858
42.8798 19.5988 192.589
42.3698 6.01414 203.598
42.4726 43.816 156.597
69.9174 5.22243 193.723
62.6881 -1.53522 189.591
110.492 69.5862 145.494
102.047 50.387 134.311
102.163 33.6678 146.204
127.875 68.0593 176.389
129.676 12.2635 45.2194
73.2587 74.0836 105.264
155.739 90.4841 201.082
54.482 -15.9661 95.6478
151.277 30.4553 109.09
104.245 32.4926 105.519
93.8679 104.769 107.841
125.441 12.7118 40.7622
36.6293 29.463 184.487
49.9511 27.4508 182.622
147.891 102.183 188.176
52.4136 -10.867 143.447
90.7033 99.8112 107.208
37.8487 25.4295 186.288
106.551 38.4454 129.503
101.5 35.1851 164.487
103.163 44.1301 135.089
99.8123 38.7201 165.773
56.6288 27.8656 191.8
54.6175 3.01711 206.916
60.8162 -12.3699 132.171
70.3773 8.18846 174.514
56.376 3.94114 206.684
61.8377 52.8981 167.157
85.4643 7.18989 103.765
102.877 42.7691 136.122
172.734 71.4548 141.963
118.869 39.9074 133.876
173.249 58.3912 180.096
84.0792 68.1346 94.6096
44.6131 35.5414 174.372
111.527 30.8551 102.473
22.5104 29.2414 154.129
115.397 32.1316 111.04
87.6244 5.46754 70.1295
48.5077 39.5886 176.913
175.085 91.8078 128.764
182.315 78.2375 146.78
166.754 87.5966 195.486
45.2644 37.7162 179.357
150.077 65.1139 186.409
48.3171 25.1293 186.857
70.8239 -0.385577 117.811
49.6724 56.6621 141.626
125.078 37.285 136.015
94.2662 103.348 113.826
87.8204 84.745 94.2966
132.893 58.3046 175.576
83.6495 43.8296 167.06
183.787 77.8006 147.581
69.0955 66.2792 146.127
88.4924 60.4322 106.02
122.574 57.4392 162.857
161.864 51.5347 178.556
72.1254 -6.19083 87.272
90.1863 37.8651 184.256
83.7401 59.9182 136.958
147.813 82.402 195.011
114.735 64.1316 155.946
159.903 85.5767 204.485
65.8277 -1.88625 186.124
173.344 65.6208 175.123
176.06 81.7102 147.687
53.813 15.9443 209.205
78.488 92.9565 73.4765
40.7269 26.4881 177.827
43.0953 -6.36587 194.259
124.055 74.8627 165.896
185.184 84.3023 132.324
75.5264 -7.95151 88.7995
155.469 74.0334 193.85
124.288 12.2742 38.8971
102.823 33.375 167.311
100.89 43.5578 141.454
140.607 50.471 168.356
129.446 58.3769 166.967
89.3136 80.6871 98.0787
154.737 31.7684 114.685
128.447 93.6479 170.567
113.925 35.1073 120.366
96.092 41.3554 165.31
154.818 97.2639 195.235
132.089 71.2318 177.865
57.7562 38.2445 155.426
137.63 81.5245 183.283
73.5402 -4.62411 104.259
131.48 19.9533 72.3231
110.021 23.3729 61.1967
142.027 16.5672 69.8142
27.8517 42.7928 119.232
116.323 36.8207 128.133
144.565 69.0607 186.21
24.6007 30.6761 149.82
167.493 81.6793 203.388
181.394 85.0173 140.933
145.787 40.9361 152.38
77.1278 1.68296 104.85
153.316 86.0001 199.343
81.2338 82.6296 79.0277
129.92 70.3443 175.125
98.9363 59.9001 122.743
129.154 30.3149 95.9922
188.764 72.749 130.678
53.0405 36.8091 157.07
130.936 70.7942 176
76.9617 99.25 69.7264
168.965 78.7037 194.062
108.269 74.5552 139.805
168.148 67.3789 203.122
141.848 93.6272 185.878
91.2149 39.7002 182.117
157.37 21.6855 103.092
52.4923 -13.9528 140.369
146.906 33.4546 113.769
88.8275 16.5238 80.1949
100.52 28.7364 114.064
121.969 79.8195 161.197
74.1438 32.6469 188.428
43.928 -15.2083 156.681
169.134 45.9732 168.397
71.2234 10.8861 174.43
156.427 96.8148 197.027
173.29 46.072 165.805
64.9611 24.4423 189.596
84.3633 14.8137 194.873
123.753 18.7855 52.1755
152.304 69.0751 193.217
93.2716 17.9652 171.47
94.2648 22.0543 74.4634
81.7489 69.566 117.16
144.235 34.3041 114.149
158.632 43.4316 147.606
94.1571 13.4394 82.4491
45.75 7.87437 202.144
171.706 54.3691 178.24
115.834 70.4258 154.862
140.222 83.7608 185.981
173.19 70.568 141.889
175.613 57.2629 167.64
153.552 46.2597 163.487
42.4111 -3.76634 199.433
87.9905 82.4972 95.2551
106.423 104.59 133.362
151.193 107.129 189.8
125.096 103.488 167.113
97.1977 24.8725 99.3322
85.7715 73.5298 94.442
82.8844 6.33887 98.0539
80.9075 58.0094 142.374
49.0829 -7.18596 132.847
107.066 88.9042 136.109
59.8593 46.1419 168.357
163.908 53.8197 177.292
165.303 86.9513 207.794
44.5264 2.97767 199.224
167.13 94.8915 123.844
61.1729 -6.54993 132.193
165.979 89.358 196.624
178.362 91.4446 126.287
177.474 52.7943 138.05
99.0379 18.9474 46.507
138.06 42.307 142.359
84.0626 57.8191 96.5043
170.096 90.3967 128.426
58.365 -5.68821 131.582
58.9387 32.5938 176.395
64.8495 9.43589 206.59
142.392 84.6483 188.721
139.911 49.1465 166.417
152.725 24.7091 105.79
131.914 107.744 158.146
183.587 60.7315 121.15
181.871 80.5096 143.84
110.101 35.5191 118.881
152.267 87.7858 198.5
95.205 30.6491 193.569
38.4957 -4.19259 193.912
124.288 12.2742 38.8971
81.4579 8.46421 104.335
43.7962 24.2167 183.432
69.2398 73.9727 108.847
51.2415 10.0871 209.489
152.723 86.899 198.426
161.553 98.2138 198.354
73.3131 50.4379 132.225
68.1914 63.0466 152.27
44.9826 2.09088 199.15
43.7338 35.0794 174.488
105.129 49.5009 136.903
134.62 17.0635 58.7292
72.1857 40.059 168.598
58.7504 -13.5727 120.327
64.0821 3.65241 203.597
39.3666 24.1422 184.044
62.9438 -4.2406 128.948
150.744 44.5828 152.749
129.082 13.1624 44.3028
106.744 23.7361 63.6732
166.716 52.958 177.903
160.678 58.41 196.977
75.6577 24.9681 195.192
159.757 67.7285 201.257
23.4677 41.8681 116.798
73.6493 62.4175 139.393
170.653 75.1687 192.775
100.367 26.0492 145.349
135.345 99.8948 178.777
87.9839 39.2131 181.548
174.343 91.3336 129.87
50.7313 16.8304 206.613
181.381 35.3601 141.334
84.6584 16.2459 220.09
46.0112 3.92603 197.011
53.2199 16.8433 208.289
68.1332 59.9729 148.202
75.2957 66.1243 132.144
69.4405 32.5967 187.058
56.2747 -7.12292 135.892
133.549 69.4096 181.679
45.5837 36.8416 178.293
169.876 41.37 147.037
129.825 18.714 63.4504
87.9075 76.6529 97.2139
119.219 81.2162 154.527
151.844 86.437 198.542
70.9117 65.1995 129.709
177.794 77.3249 143.355
139.409 78.8276 186.033
110.919 102.732 142.814
77.6485 33.1096 190.978
68.4202 2.88876 198.949
71.0154 67.423 130.732
78.6623 99.639 75.5537
165.178 62.9435 197.42
61.1904 57.1149 153.164
93.3315 4.58222 75.3874
120.052 105.395 153.699
171.254 69.2635 199.687
156.827 38.2805 130.63
174.886 36.6215 140.228
175.761 94.2145 117.595
169.417 71.4253 202.996
83.5693 54.5499 105.619
93.5583 24.4036 190.692
152.868 102.209 191.527
97.9326 83.7022 115.097
103.228 24.4267 74.2635
148.197 44.0348 157.132
148.779 72.2333 187.686
82.5135 35.9182 187.312
111.675 11.9187 19.4347
95.098 18.2893 57.1392
84.4606 8.12535 99.8772
100.248 23.665 186.729
51.0088 -2.20775 193.216
173.605 64.2112 180.118
97.2897 76.5213 116.107
131.035 86.954 172.146
171.348 40.9331 147.837
86.3314 74.8664 95.3906
69.4528 33.982 184.045
173.946 59.7157 182.035
158.399 26.0594 111.08
115.378 71.3126 154.936
35.8953 1.11598 195.346
63.9226 -10.4854 128.736
117.11 33.906 113.854
65.171 -2.81806 125.629
167.389 79.4559 202.365
131.82 7.84168 43.8591
53.8742 38.1214 160
